1271
-6954.397949 2147.247559 -7483.144043
-6669.858887 4034.362793 -4073.477783
-6240.651367 4745.391602 -3611.767090
-6572.011719 3987.255371 -5005.985352
-7826.399902 1358.990967 2184.877197
-4893.859863 4847.310547 -9163.207031
-5403.109375 4521.003418 -8538.219727
-4870.762695 5258.907715 -8003.813965
-4777.794922 6398.448242 -1180.596191
-3978.272949 6934.943359 -788.457947
-4193.131348 6776.844238 -1645.191650
-782.167175 7499.685059 -6029.448730
-828.286621 7643.829102 -4993.523926
-2415.549316 7473.919434 -3447.014648
-1610.359131 7689.448242 -3427.494873
-4282.314941 3798.503906 -12578.916016
-4200.614746 3158.705078 -13574.037109
-4778.661133 2965.764404 -12805.221680
-5559.270996 4642.742188 -7654.846191
-1093.067261 7859.589355 2332.095459
-3642.407715 4124.438965 -13069.805664
-7776.336426 1307.164062 3069.943359
-7640.697266 2133.704102 2369.745605
-3526.353760 6081.981934 -8599.442383
-6022.636230 4116.702148 -7399.840332
-5748.006836 4698.311035 -6721.165039
-4917.890137 3357.576416 -12025.367188
-5547.002441 2875.339600 -11247.611328
-650.468018 675.899475 -17875.912109
-703.465271 1426.912476 -17640.740234
-2824.388916 7348.302246 3234.734619
-3169.420410 7106.048340 4209.051270
-2399.912354 7404.976562 4177.615723
-7773.041992 1808.632324 1333.780884
-3773.220703 6872.216797 3611.712646
-3081.466309 3365.199463 -14787.476562
-3480.931641 3565.471191 -14084.926758
-2755.731445 4051.422119 -14231.678711
-7196.254395 2351.309570 -5834.282227
-2871.489990 4385.692871 -13600.626953
-4054.666992 5951.809570 -7849.385254
-1439.543213 6593.986328 -9671.760742
-2009.867676 6639.041016 -8976.302734
-6083.103027 4890.212891 3975.915039
-4681.496094 5891.340820 -6126.321777
-5146.106934 5302.411621 -6912.538086
-6974.066895 3903.742432 916.856506
-6940.175781 3983.818848 -175.894623
-7350.698242 3159.043457 393.790771
-1040.707886 4728.178711 -14332.514648
-750.894409 5259.120117 -13461.836914
-5111.812988 3670.945557 -11118.756836
-5517.776855 3548.144775 -10309.244141
-959.350342 2749.108887 -16766.310547
-845.467712 2012.640747 -17317.349609
-5330.255859 5964.955566 506.180939
-5923.226074 5377.497070 454.849792
-5268.809082 5997.598145 1255.222900
-5945.015137 5304.398926 1687.864502
-3542.170898 7153.565918 1277.301880
-2999.425781 7417.128418 406.216034
-3830.513672 7025.093262 303.451691
-7831.949219 909.523254 -3080.984375
-7912.663574 794.560974 -2013.547241
-7410.849121 2386.840332 4162.793457
-7655.345215 2309.640137 -726.116577
-7373.398438 3096.602051 -663.538452
-2556.018799 7563.813477 -1228.805908
-2471.274658 7557.917480 -2028.881104
-3326.139404 7242.509766 -1631.002808
-7583.986328 1583.959717 -4508.148438
-7628.635254 883.189270 -5062.985840
-7743.394043 866.866028 -4105.327637
-7794.714355 1494.384521 -2307.220703
-2193.862061 6284.051270 -9993.495117
-1489.779907 6326.971680 -10500.135742
-2236.967041 5951.801758 -10930.267578
-808.588440 7338.082520 -6947.838867
-798.395142 7143.133301 -7914.397461
-1536.006470 7123.322754 -7440.183105
-7280.736328 3113.204590 2605.440918
-1822.482422 2043.654663 -16913.515625
-1669.392822 7802.342773 -1385.701904
-1492.917236 6008.928223 -11404.126953
-3842.262939 6747.407227 4357.085938
-3685.731201 6989.590332 2848.639893
-4029.901611 6848.427734 2136.080322
-4406.666016 6544.376465 3013.825684
-1489.055054 6948.313477 -8278.512695
-6759.313477 3225.266357 -6342.834961
-6502.136230 3913.498779 -5712.250000
-6296.739746 3984.402588 -6564.781250
-7465.945312 1618.930420 -5361.369629
-7308.912109 2391.020508 -4981.859375
-4785.721191 6341.277344 2166.816650
-7657.623047 1654.248047 -3673.404541
-1346.162109 5747.757324 -12153.023438
-654.439087 6039.481445 -11717.540039
-684.366455 5683.253418 -12578.739258
-6792.511230 4127.508301 -2096.070312
-6373.421387 4786.409180 -1610.621338
-6278.040039 4816.247559 -2692.477539
-5690.994629 5538.597656 -2226.057373
-6944.705566 3159.603271 -5431.331543
-2898.406738 6207.152344 -9304.773438
-7126.618652 3246.075195 -3707.690674
-6743.134766 4082.003174 -3108.806885
-2303.090576 6757.024902 -8135.106934
-4874.419922 6282.624512 -2026.347412
-3154.339600 7351.129395 -522.732056
-4804.020996 2116.168213 -13586.293945
-4869.620117 4409.187012 -10280.019531
-4008.082031 4905.181641 -11000.038086
-4508.255371 4194.197754 -11496.989258
-6561.159668 4579.105469 362.356140
-6493.045898 4643.059570 1282.915283
-7672.113281 1369.904419 4089.056396
-7410.234375 2411.938965 -4094.582520
-4031.500732 6816.223145 -2593.053223
-6395.675293 4803.798340 -559.329651
-6928.969238 3970.404785 -1164.926758
-2098.519531 7714.845703 780.281860
-2031.505615 7701.623535 1743.642212
-1063.795288 7909.768555 1324.710327
-5912.038086 5239.794434 2876.336914
-5394.483887 5832.344727 2164.736572
-7063.824707 3155.827393 -4601.950684
-2796.592041 7475.816895 1300.305664
-7802.879883 1661.475220 -1418.169800
-7584.291016 2349.601318 -2250.228271
-5138.059082 1004.941589 -13613.676758
-5922.667969 2672.277100 -10507.588867
-6392.385254 735.337524 -10702.166992
-708.487183 6364.718262 -10794.355469
-2479.577637 7118.937500 -6041.807617
-1612.745117 7443.802734 -5524.094238
-1523.807129 7311.871094 -6463.409668
-2357.868408 6966.785645 -7093.981445
-3085.399414 7319.904785 2183.364258
-4391.056152 6666.617676 1267.987671
-2027.910889 4618.806641 -13973.798828
-5131.500000 5986.145020 3081.338135
-7744.824707 601.155579 4326.081543
-653.114929 7972.571289 525.188904
-1455.711792 7867.423828 373.115997
-2940.120605 4790.154785 -12813.409180
-7205.546387 3265.434326 -2717.784912
-1832.023682 7707.900879 -2539.677490
-4545.965820 6584.945801 -281.498993
-5325.482910 5970.882812 -394.500763
-5326.674316 5939.135254 -1415.751343
-5832.523926 5455.930664 -1141.269531
-2015.634521 7653.008789 2672.389160
-1914.544312 7618.617188 3436.389160
-2482.490234 3227.725586 -15495.649414
-1734.517944 2952.831055 -16268.621094
-2534.733887 2519.220947 -16105.539062
-4531.115723 5801.259277 -7061.826172
-2890.311279 6425.886230 -8534.414062
-946.701172 4217.763184 -15148.160156
-1884.728882 4256.393555 -14641.510742
-2147.098145 5664.123535 -11763.066406
-2186.427490 7696.557617 -359.259827
-982.562378 7940.080566 -406.485657
-3724.745361 4664.047363 -11989.955078
-6125.618652 973.837036 -11374.023438
-865.058533 3543.166016 -16021.922852
-5101.560547 5888.455566 -4112.578613
-4249.724609 6579.789551 -3688.475342
-4412.876465 6354.108887 -4606.723145
-4981.990234 6119.995117 -2991.076416
-4321.665527 2249.743408 -14279.576172
-2944.400635 5890.774414 -10226.585938
-3096.122314 5398.812012 -11315.698242
-7696.429688 1752.398193 -2964.437988
-7486.426758 2440.759277 -3211.837646
-3241.128418 6932.896484 -5261.983398
-3456.133057 6701.438965 -6030.675781
-4058.537109 6443.140625 -5535.695801
-1770.833618 3734.093994 -15414.084961
-2406.739746 3738.341797 -14966.418945
-2967.138428 7341.717285 -2601.988281
-7290.676270 3211.179199 -1709.041260
-6621.062500 938.364807 -9887.466797
-7273.296387 2952.881348 3500.902100
-7564.035645 2168.213623 3280.496826
-6050.435059 3123.223145 -9457.715820
-5461.141113 4052.057861 -9489.504883
-6533.952148 3225.573975 -7441.606934
-6705.676270 2490.721924 -8070.115234
-2674.628662 1630.422729 -16563.832031
-6434.941895 4537.210938 3219.024414
-7812.140625 691.981323 3580.892090
-6608.313965 2235.023682 -8820.319336
-6442.907715 2002.525391 -9680.068359
-1443.591064 7653.191895 4139.872559
-5483.029297 5554.055176 3980.482666
-3875.176758 6323.769531 -6761.185059
-2823.464844 5174.605957 -12173.895508
-5690.458496 5434.051758 -3284.770752
-7381.354492 3013.635254 1552.761230
-3094.660645 6736.733887 -6778.577637
-4799.351074 6400.803223 443.729523
-3212.525146 6492.947266 -7648.852539
-886.631348 7750.242676 -4017.655762
-6361.153320 3066.640625 -8468.166016
-5939.108398 3863.484619 -8368.718750
-832.098511 7851.131836 -2941.538574
-6229.571777 1564.032959 -10737.455078
-7580.638672 2481.956299 -1452.072632
-5878.674316 5426.527832 -432.368927
-6715.929199 -1905.974609 -8799.846680
-6631.926270 -1368.427490 -9592.427734
-6368.208008 -2100.590820 -9823.927734
-3534.206299 -6903.040527 -4442.126953
-3678.529541 -6937.024414 -3476.579102
-4281.082031 -6539.939941 -3859.597656
-7199.848145 -3488.321777 -431.310577
-7347.965332 -3100.685791 -1485.400146
-6863.557129 -4083.474121 -1146.430786
-7561.868652 -2609.320068 -515.681091
-2890.381836 -7278.049805 -3708.629395
-5565.819824 -2642.496094 -11486.979492
-5895.726562 -1713.877197 -11545.005859
-5347.669434 -2233.191650 -12413.357422
-2068.337891 -5165.704590 -12936.667969
-987.547424 -5232.902344 -13436.194336
-1019.146179 -5617.107910 -12614.317383
-7771.294922 -588.692200 4088.050293
-7783.400879 -1139.844482 3307.533447
-7688.143066 -2212.530518 450.609650
-7575.227051 -2509.713623 1349.998657
-7790.702637 -1751.874390 1187.761353
-7423.063965 -2982.630859 477.192261
-7950.130371 -814.541260 940.719666
-7903.187988 -1252.836304 256.420685
-7941.471191 -925.206360 -779.169434
-7803.650391 -1767.365234 -336.910736
-1484.787598 -760.904785 -17604.476562
-713.842041 -701.827515 -17858.613281
-881.372620 -1526.153809 -17558.091797
-1851.055298 -5591.530273 -12185.709961
-1091.798462 -5943.967285 -11799.470703
-717.244385 -7885.669922 2608.292725
-814.037964 -7931.842285 1535.747803
-7891.719238 -1057.455688 1807.144043
-7869.933105 -874.589050 2605.847168
-6354.031250 -4668.816895 3076.954346
-6922.470215 -3728.586670 3351.315430
-6788.267578 -4073.141113 2634.516113
-4714.847656 -6466.311035 4.336265
-3877.560303 -7000.337891 118.261856
-4369.448730 -6686.842285 1095.060547
-796.219727 -6927.000488 -8834.029297
-1527.850220 -6671.376465 -9328.641602
-712.124573 -6692.020996 -9740.218750
-1593.042603 -6434.374512 -10085.052734
-7211.904297 -3272.431152 2586.732422
-5076.612793 -6180.093262 625.841736
-4300.719238 -6743.337402 -612.613281
-6573.903320 -4171.997559 4160.317871
-7056.885254 -3269.007080 4242.038574
-6546.800293 -3988.974854 -5163.701172
-6762.143555 -3824.007812 -4322.618652
-7031.630859 -3090.453369 -5053.666016
-6912.487305 -877.224243 -8852.705078
-6675.474609 -671.503967 -9811.992188
-6196.298340 -4653.269531 -4496.208984
-1531.647217 -7844.484863 -902.745789
-1780.742676 -7766.245605 -1679.208374
-866.391541 -7931.168457 -1402.682495
-841.613281 -7893.795898 -2274.568115
-2369.102051 -7640.380371 -527.087402
-3132.712891 -7364.010742 46.556961
-3392.878174 -7238.078125 -846.313904
-2414.187744 -7624.666504 632.713135
-6028.501953 -4121.554688 -7361.913574
-5410.867676 -4699.430664 -8009.597656
-5490.815918 -4916.566406 -7012.915527
-4971.796875 -5317.660156 -7475.718262
-5982.270020 -853.813232 -11800.803711
-6363.112793 -1113.587769 -10624.840820
-1176.524658 -2994.455322 -16481.304688
-738.290039 -3627.579834 -15958.320312
-1537.260132 -3702.555420 -15578.500000
-1515.007080 -2142.254395 -17005.015625
-742.064880 -2294.969727 -17162.996094
-882.442261 -4229.569336 -15151.133789
-5548.477051 -5766.108398 -217.676651
-7422.133789 -2074.010254 -4852.002930
-7227.762207 -2268.854492 -5802.322266
-4218.973145 -6578.961914 3870.073486
-3548.553467 -7034.000000 3159.838135
-3308.878662 -7048.483887 4155.428711
-1362.375732 -7818.199707 2318.643799
-7576.902832 -1090.684570 -5247.987305
-7559.663086 -2212.270020 3181.170898
-7612.252930 -2297.140381 2036.435547
-2942.841797 -1557.946289 -16367.868164
-2239.694824 -2410.715332 -16407.958984
-2984.306396 -2492.350098 -15732.673828
-4354.916992 -850.619446 -14979.720703
-3701.695312 -924.627258 -15822.522461
-7141.416016 -1925.749878 -6872.038086
-6847.010742 -2485.606201 -7454.196777
-6855.585938 -2862.114014 -6692.104492
-1913.624512 -7738.888184 1575.469116
-2166.514404 -7628.781250 2412.975098
-2977.815918 -3198.901855 -15078.769531
-3538.488525 -2542.216309 -15098.317383
-5559.870605 -5068.609863 -6135.122559
-4926.592285 -5624.541504 -6415.750488
-5926.219727 -4497.352539 -6633.065430
-6489.844238 -3311.122803 -7446.786621
-3649.061523 -6435.102539 -6865.460449
-2777.032227 -6941.137695 -6421.849121
-3671.470459 -6590.030273 -6007.960449
-788.524841 -7961.312500 442.512878
-744.234802 -7963.933105 -572.806580
-5169.810059 -5812.039062 4229.683105
-4864.784668 -6195.726562 3172.803955
-1383.973511 -7761.916016 3084.209229
-3522.750732 -5839.466309 -9418.359375
-4006.228027 -5774.482910 -8608.604492
-4343.838867 -5319.065430 -9241.517578
-4585.828613 -5447.114258 -8215.778320
-6762.665039 -3396.299072 -5854.298340
-6429.041016 -3764.711914 -6572.012207
-6243.771484 -4254.566895 -5932.616211
-3372.502686 -7242.928711 1028.731934
-4989.327148 -6186.838379 -2101.114014
-5771.757812 -5426.644531 -2546.037354
-5111.964844 -5990.159668 -3203.716064
-6059.105469 -2203.468994 -10663.162109
-5918.547363 -3029.465088 -10017.631836
-854.414490 -6379.407715 -10696.597656
-7391.259766 -2437.624268 4190.024902
-7296.187012 -2891.170410 3520.456787
-2399.552246 -7404.916016 4179.205078
-3640.519531 -6220.097168 -7824.005371
-4401.062500 -5869.641113 -7190.879395
-4616.785645 -3626.508545 -12232.398438
-5040.781738 -3646.814453 -11321.152344
-5084.836914 -3113.039062 -12006.922852
-4288.468262 -4312.303223 -11699.545898
-5048.695312 -5904.231445 -4322.823242
-4536.982422 -4470.439453 -10897.570312
-3167.463379 -5486.220215 -10998.677734
-2128.752930 -5828.492188 -11367.048828
-2331.429932 -6087.275879 -10442.040039
-6678.009277 -4406.981934 -360.397186
-6372.771973 -4814.361328 -1130.625977
-6110.161621 -5163.041016 -512.423950
-4244.740234 -6685.833008 -2588.875244
-1565.554565 -6169.502441 -10910.404297
-6900.586426 -3917.716309 -2333.558594
-6365.810059 -4775.564453 -1899.807617
-983.112488 -7313.058105 -6967.451660
-1957.022095 -7119.133301 -6943.932617
-1812.310303 -7006.449219 -7683.129395
-1752.876465 -7313.426758 -6153.312988
-858.029541 -7503.344727 -5953.738770
-6376.534668 -4663.792480 -2873.244385
-6247.198730 -4998.071289 419.377106
-4329.452637 -6146.748047 -6166.501465
-7241.222656 -3015.473633 -3566.726562
-7214.622070 -2870.184814 -4358.104980
-7513.145508 -2123.565918 -3951.308594
-7686.996094 -1110.549927 -4338.038574
-7721.368164 -2031.038818 -1228.518188
-7881.104980 -1161.258301 -1716.860596
-2742.169189 -6766.182617 -7371.986816
-3554.576172 -4866.983398 -11842.319336
-3890.965820 -4943.685059 -11124.861328
-4223.641602 -6762.910156 -1536.860840
-3363.398682 -7211.371094 -1917.337891
-6866.479980 -3848.066406 -3249.214111
-2613.427734 -6610.758301 -8267.571289
-1687.680054 -6838.695312 -8543.269531
-5614.159180 -1121.966553 -12576.755859
-4801.653320 -4626.900879 -9952.466797
-3959.337402 -5247.106934 -10266.636719
-2470.394287 -6374.077148 -9358.388672
-1427.177856 -7669.257812 4016.410889
-6390.837402 -4729.879395 2047.197632
-5973.763672 -5288.300293 1406.454590
-5838.530762 -5375.375000 2315.605713
-7280.032227 -3109.768066 -2635.982910
-6490.956543 -4646.259766 1277.780396
-2370.622803 -877.171814 -17078.523438
-1699.295410 -1385.925537 -17311.089844
-2255.244629 -1669.119629 -16857.468750
-771.992798 -7748.578125 -4151.385742
-782.680725 -7835.175293 -3212.882812
-1798.580933 -7618.728027 -3738.797363
-6393.042480 -4513.577148 -3763.437744
-5821.284180 -5233.312988 -3742.174316
-5718.878418 -5562.626953 -1412.884888
-7579.536133 -2175.215576 -3069.248779
-1538.763794 -7481.687988 -5369.772949
-2343.441650 -7256.790527 -5458.877930
-4970.211914 -6256.514648 -995.762146
-2784.115967 -7465.937500 1670.278564
-3071.699219 -642.686584 -16558.261719
-2625.698242 -7528.001465 -1554.867676
-2520.702637 -7523.762695 -2339.673340
-1495.724121 -7853.643555 798.621216
-2930.432861 -7350.219727 2689.521973
-3640.471680 -7067.930664 2054.451172
-602.438416 -7744.869629 4324.774414
-5650.657715 -5657.470215 732.534180
-5187.322754 -6056.461914 1515.407227
-1790.162598 -4807.709961 -13814.872070
-980.966675 -4750.472656 -14316.525391
-6972.920898 -3916.639893 641.245239
-2233.029297 -3099.802246 -15816.492188
-2331.116943 -3576.584229 -15224.732422
-1857.963623 -4224.728027 -14705.078125
-1649.618896 -7546.503906 -4703.025391
-2916.989258 -3832.913574 -14374.579102
-4610.190918 -6468.806152 2184.961914
-5249.346191 -5937.540039 2497.529541
-4222.988770 -6678.632812 2849.716797
-3197.505859 -7227.849609 -2824.679688
-6996.556641 -1672.258423 -7886.713867
-6584.559570 -2711.185791 -8213.910156
-7635.872559 -2193.775879 -2161.823242
-5701.194824 -3754.147217 -9394.666016
-6262.734375 -2882.316162 -9140.180664
-7305.618652 -895.234558 -7066.159668
-7443.063477 -1058.220215 -6169.639648
-803.244019 -7153.727539 -7863.341309
-4149.426270 -6466.007812 -5037.493164
-5281.891113 -3861.938965 -10363.631836
-5641.708008 -3052.746094 -10762.313477
-5216.922363 -4564.556641 -8994.594727
-5981.535645 -3755.165771 -8464.735352
-4828.916504 -2928.384277 -12753.259766
-6914.201172 -3956.819580 1713.517944
-4014.608887 -1751.189697 -15064.774414
-3447.110352 -1748.834351 -15761.090820
-5092.655273 -5687.283691 -5399.426270
-1646.532104 -7739.885742 -2686.012207
-2347.074219 -7519.149902 -3178.210693
-3899.146973 -6704.296387 4437.364746
-2944.668701 -7277.841797 3488.084961
-2206.087646 -7551.390137 3300.076660
-5247.216797 -905.604370 -13437.158203
-4886.532715 -659.089600 -14177.448242
-4659.433594 -1466.520142 -14257.794922
-3129.225098 -5812.874512 -10174.301758
-7316.182129 -3178.585449 1445.559204
-3206.510742 -6220.819824 -8729.465820
-4291.246094 -3512.243652 -12978.032227
-3171.850830 -4697.635254 -12706.653320
-2661.028564 -4460.010742 -13694.597656
-5019.734863 -1965.086304 -13303.609375
-4263.315918 -2348.445068 -14287.914062
-4356.288574 -2995.899414 -13512.386719
-2729.022461 -5325.117676 -11952.474609
-7758.636230 -1211.014404 -3469.955078
-7818.185547 -1249.331787 -2621.238037
-693.656250 -7812.254883 3577.989014
-7651.100098 -1473.245728 4106.449707
-7923.268066 -516.236938 -2247.329102
-7859.924805 -595.191528 -3108.765625
-7738.798340 -1661.748901 2654.270508
-5693.519531 -5428.926758 3300.767822
-6007.352051 -4961.521973 4109.411133
-5899.993652 -4860.118164 -5328.525879
-5665.352539 -5271.798340 -4584.765137
-2599.260742 -7292.312012 -4559.370605
-3652.333984 -3191.693604 -14317.027344
-7134.272461 -668.888062 -8014.925781
-1579.698975 -7845.208496 -33.927830
-3981.376221 -4163.691406 -12494.001953
-3631.956055 -3892.078369 -13439.797852
-825.800293 -7628.232910 -5114.788574
-3169.974365 -6958.941895 -5307.149902
-5271.564941 -4239.757324 -9616.155273
5387.652832 -5595.591797 4329.732910
4700.750000 -6222.691406 4038.651367
5384.777344 -5708.363770 3529.040039
7846.575195 -1560.246582 -449.044800
7963.022461 -706.009399 -825.814575
7948.882812 -900.036011 493.658752
7780.595703 -1860.281250 475.308533
7576.307617 -2557.243164 722.000061
7616.394043 -2456.311279 -15.617084
2570.274902 -2888.751465 -15759.453125
3344.991699 -2373.157471 -15456.441406
3076.708008 -3229.007568 -14945.272461
874.296448 -6681.776855 -9708.934570
1732.408936 -6710.143066 -9001.396484
808.628296 -6920.181641 -8855.335938
1772.656006 -6370.600098 -10138.112305
2599.200684 -6333.734375 -9320.381836
7939.417480 -750.092102 1502.097778
6482.948242 -4569.903320 2391.337891
6910.785156 -3938.764404 1973.903076
6884.371094 -3835.884277 3128.309326
7889.146973 -688.637573 2594.063232
2614.769775 -6070.336914 -10148.298828
1013.778076 -7075.570801 -8094.634277
796.731018 -7565.344238 -5588.708984
1247.294800 -7344.234375 -6576.666992
1783.658813 -7348.918945 -5888.951660
4340.522949 -786.451599 -15018.545898
4535.222168 -1431.405029 -14476.790039
3983.503174 -1709.668945 -15130.534180
4466.518066 -2153.811523 -14128.103516
6625.345703 -4088.190186 4168.373535
7052.556641 -3300.211182 4155.341309
1472.132812 -1059.647827 -17531.554688
2323.926514 -1047.348633 -17062.476562
4274.473633 -6760.548340 -581.476257
3988.286621 -6907.683105 -1458.468140
4868.789062 -6311.007324 -1604.786255
4141.455566 -6765.138184 -2384.861572
2652.326416 -6541.958984 -8479.060547
3488.152344 -6271.397461 -7966.689941
2649.462891 -6755.351562 -7590.507324
3896.869629 -2703.081787 -14498.600586
6425.684082 -4763.285645 -571.996765
6997.819824 -3881.715820 -170.885529
6482.129395 -4689.993652 382.556854
6956.163574 -3933.815186 953.898865
5950.119141 -5203.110352 2815.333008
6017.292969 -4953.735352 4083.271484
2443.632080 -5859.656738 -10958.246094
2001.737061 -5765.955078 -11641.833008
2921.774902 -5247.462402 -11895.581055
2339.545654 -7615.271973 -1708.728394
2527.907471 -7502.699707 -2625.121582
3323.412842 -7227.410156 -1963.986694
3358.113281 -7156.847168 -2796.298828
1562.286255 -7836.435547 -986.900940
702.946167 -7957.202148 -1082.859009
1207.445923 -7870.663086 -1796.175415
5962.389648 -4471.389648 -6557.448242
5279.662109 -5305.733398 -6368.716309
5498.315430 -4793.567383 -7403.131348
5899.234375 -5394.210938 854.993347
5145.165527 -6115.215332 939.274475
5495.021484 -5817.851074 -40.128647
4908.125977 -5966.087891 -4696.058105
5476.617188 -5356.545410 -5205.947266
5594.255859 -5408.478027 -4205.331055
767.513916 -7882.919922 -2577.788086
1694.539673 -7721.105957 -2805.727051
7128.454102 -788.578247 -7986.011230
7267.911621 -936.400574 -7233.898926
7826.488770 -1358.504028 2184.786377
4929.210449 -6304.431641 1.602568
6668.838867 -963.566223 -9711.191406
6404.224609 -898.412659 -10602.925781
811.342468 -7960.231934 -313.326477
840.307739 -7799.440430 -3560.339844
6163.354492 -3032.524170 -9235.563477
6661.724609 -2184.336914 -8680.182617
6440.098145 -2975.276855 -8330.054688
4819.687988 -2382.884521 -13332.435547
4357.740723 -3037.430908 -13463.019531
778.415588 -7829.390137 3288.587158
651.285400 -7746.470215 4274.160645
7776.339844 -1307.138062 3069.947998
7641.040039 -2132.290283 2370.600342
1785.038208 -7800.676758 -174.938797
2616.083740 -7562.987305 38.899818
1884.554565 -7769.642090 792.335632
6775.860352 -2410.095459 -7895.499512
6578.697266 -3138.807129 -7429.867188
4616.717773 -3491.062012 -12430.283203
4732.803711 -3982.332764 -11421.329102
4220.529785 -4111.220215 -12180.853516
5108.001465 -4886.427246 -8438.154297
4862.047852 -4733.010254 -9543.288086
5552.952637 -4079.711426 -9154.080078
5151.699219 -4091.206543 -10249.500000
7772.345703 -1811.971436 1331.389282
4408.716309 -6032.032715 -6449.012207
3791.614990 -6558.726562 -5800.145020
3496.405273 -6502.318848 -6946.479004
3411.890137 -7067.159180 3525.821533
3359.644043 -7166.763184 2654.936279
4080.407715 -6727.508789 3285.643555
4208.803223 -6543.646973 -4213.740234
4212.984863 -6426.300781 -5027.646484
6019.296875 -5273.368652 -115.122726
5695.126953 -5600.566406 -1106.845459
1411.963623 -4027.383789 -15226.826172
665.857605 -4257.801270 -15167.106445
716.720581 -3639.248535 -15949.851562
6876.210938 -1072.159180 -8886.985352
3458.287109 -3669.652588 -13977.365234
1061.724976 -2884.012451 -16619.802734
835.932861 -2011.656982 -17320.271484
3518.843994 -6861.816895 -4811.586914
4730.283203 -5962.586914 -5562.028809
7410.929688 -2386.668457 4162.568359
2297.926270 -7446.762695 4091.050537
2666.137939 -7396.390137 3357.404785
3085.375732 -7143.798340 4201.677734
6285.438477 -1751.845581 -10421.378906
5951.928711 -4715.633301 -5681.435547
3318.444580 -7271.778320 -877.325989
3491.468018 -7199.304199 338.447968
1828.350098 -1977.586304 -16950.005859
6497.270996 -4630.114746 1405.512573
6485.789062 -1962.494019 -9576.112305
3822.656250 -3994.123047 -13014.025391
7557.324707 -1680.503906 -4557.550293
7624.876465 -903.838074 -5073.186035
7741.089355 -881.280334 -4111.785645
2450.930420 -7033.368164 -6583.662598
6433.695312 -4537.686035 3228.229736
7282.040039 -3109.370361 2610.169434
7638.446777 -1724.305420 -3712.188965
7829.439941 -930.898315 -3080.944336
821.979919 -6430.929688 -10552.403320
4912.175781 -6091.201660 -3770.931152
6691.546875 -4182.797363 -2992.743896
6224.362305 -4908.720703 -2468.796875
6225.566895 -4766.726562 -3601.330078
5604.006348 -5539.234863 -3144.896240
4880.066895 -5413.816406 -7432.217773
4163.240723 -5931.900391 -7635.169922
7463.408691 -1659.612183 -5316.120117
7270.003906 -2479.904785 -5049.587891
7429.115234 -1086.000732 -6229.969238
6719.886230 -4252.610352 -2013.550049
6284.810059 -4912.760254 -1438.325439
5631.947266 -5608.834961 -2092.063965
4874.376953 -1639.663940 -13791.178711
1394.494507 -6146.687988 -11091.444336
4187.300781 -6663.684570 -3263.186523
4929.161133 -6179.691406 -2807.286865
2423.686523 -7619.200195 -767.718750
7350.522949 -3159.222412 402.956909
6892.237793 -3226.062012 -5570.031250
7058.489746 -3147.634033 -4671.229492
6743.639160 -3760.198242 -4732.624023
1695.042603 -4717.679199 -14030.909180
927.589905 -5090.733398 -13730.896484
943.127686 -4640.382812 -14510.738281
3393.710938 -7032.315918 -3942.430908
3293.570557 -6145.092773 -8836.183594
3323.359863 -5912.641113 -9553.051758
3944.891357 -5777.116699 -8741.933594
4594.289062 -5427.213867 -8258.384766
1920.471680 -5043.148926 -13291.764648
2017.278687 -5407.207031 -12469.760742
7672.113770 -1369.899902 4089.059326
5673.553223 -4307.289551 -8203.124023
6105.817383 -3626.217041 -8298.622070
2548.714355 -7320.976074 -4470.474121
820.435120 -7712.570801 -4433.988770
7653.701172 -2314.965820 -728.009521
3575.105469 -4606.901367 -12327.433594
1613.753174 -7517.672363 -4990.777344
1605.573486 -7638.169922 -3975.164062
7351.180176 -2565.010986 -4161.916992
6191.770996 -4615.039062 -4721.465332
6613.124512 -4133.012695 -4040.989014
7800.221680 -1671.328857 -1433.476685
7577.139160 -2370.410889 -2261.676514
7790.414062 -1497.615112 -2369.274170
5489.349121 -3316.952393 -10765.368164
5825.571777 -2389.628906 -11109.393555
6018.475586 -2701.900391 -10189.019531
5361.055664 -5815.645996 2736.615967
5591.460938 -5664.260254 1874.699463
6097.182129 -5117.315918 1855.350952
7367.327148 -3111.764160 -645.589233
2550.133789 -7429.241211 -3445.215820
5659.475098 -3551.783691 -9906.422852
5706.277344 -1001.811279 -12417.329102
6055.930664 -764.771179 -11640.533203
6016.875488 -1501.973022 -11376.880859
4927.344238 -6241.781738 2017.326172
4199.635742 -6728.057129 2400.775146
4412.937988 -6644.180664 1464.270752
6057.362305 -4051.607666 -7438.104492
7744.825195 -601.153992 4326.082031
7910.560547 -811.752014 -2020.643677
7184.120117 -3322.357666 -2654.992432
5594.958496 -2034.283691 -12028.962891
5275.949219 -1838.941040 -12886.746094
4831.229980 -804.600830 -14235.216797
6850.445801 -2960.499756 -6499.425781
7194.787109 -2255.166260 -6032.103516
2686.389648 -7122.676270 -5552.383301
635.063110 -1010.437744 -17798.716797
1707.962036 -7111.690918 -7305.611328
1996.254761 -6849.229492 -8155.180176
1115.738770 -5875.620605 -11960.227539
917.183167 -7946.005371 563.409424
3894.391846 -4759.815918 -11517.549805
3772.061523 -860.560791 -15756.592773
4031.076904 -5355.482910 -9833.134766
4545.156738 -5252.647461 -8938.935547
4440.267578 -4705.880371 -10593.368164
779.380920 -7282.636230 -7253.161621
3388.009277 -1568.473877 -15921.136719
7059.071777 -2064.057617 -7095.696289
5302.057617 -2997.700195 -11675.499023
3654.161133 -7088.584961 1495.434082
2724.245117 -7511.851074 989.557800
7689.482910 -1776.333618 -2983.510010
7457.368164 -2520.815186 -3240.879395
7055.042969 -3392.371094 -3737.514160
6886.291992 -4052.608398 -1001.650940
3237.816406 -5371.416016 -11180.220703
5030.557617 -2674.251221 -12640.845703
7275.018555 -3246.878662 -1705.363770
3801.030518 -5158.308594 -10783.949219
3249.448242 -5655.739746 -10428.510742
2006.288086 -2707.547607 -16326.322266
2671.589111 -1944.312744 -16394.083984
4327.589355 -6726.629395 583.936157
7564.200195 -2167.653320 3280.449463
2245.237305 -3670.622070 -15176.723633
1626.817139 -3376.365479 -15904.022461
7249.202148 -3023.620361 3447.848633
6985.472168 -1603.677124 -8007.555176
2609.103516 -4386.229004 -13864.646484
2903.641357 -4748.825195 -12932.766602
1959.025879 -4230.927246 -14629.508789
7812.140625 -691.979004 3580.893555
1000.794067 -5534.390625 -12805.278320
1458.542969 -7648.195801 4160.024902
6441.933594 -4032.098877 -5639.572266
966.479614 -7916.500000 1488.441772
1131.910889 -7848.895020 2418.957520
3923.446777 -6736.140625 4069.793701
1794.260498 -7655.767090 3345.885986
3078.374268 -869.112488 -16499.591797
4755.807617 -6294.653320 3019.858887
2840.677246 -7428.437988 2001.484863
2687.050537 -3904.306396 -14503.553711
5288.289062 -824.455200 -13382.015625
5049.364258 -6199.143066 -771.061096
2012.306641 -7710.396973 1658.008423
7381.607422 -3012.985596 1553.052124
2293.694824 -7581.227539 2571.358154
6499.025391 -3666.025391 -6505.686523
3242.622070 -6765.786621 -6262.644043
7575.831055 -2495.278564 -1463.469604
3266.068848 -4180.316406 -13476.848633
986.164551 8870.373047 -2485.927002
1018.632202 8921.601562 -1352.737671
1894.150024 8748.498047 -2023.672852
2230.722412 8708.317383 -1017.622131
6770.660156 937.454285 -12364.761719
6275.508301 1573.151489 -13211.845703
6660.254883 1881.532593 -12150.629883
6171.326660 2671.968506 -12631.348633
6766.794922 5106.211426 -6394.811523
7237.708008 4576.244629 -5862.971680
7185.699707 4390.773438 -6717.446777
4142.495605 7937.456055 -1979.766968
4904.573242 7450.077637 -2571.834473
4048.134277 7926.517578 -2852.224609
1546.111328 775.433716 -18646.005859
699.607849 689.543152 -18886.552734
981.161316 1544.153564 -18603.513672
3963.277588 6479.756348 -10198.235352
3867.073242 6871.487305 -9168.567383
4668.151855 6220.486816 -9569.248047
5844.766602 5644.385254 -8180.375000
5999.557617 5027.648438 -9384.563477
5356.667480 5798.289062 -9133.896484
1835.237305 4383.275879 -16137.353516
1710.690796 3640.466309 -16997.945312
922.357422 4377.293945 -16488.207031
7569.615723 3928.633545 -6084.139160
2070.585205 7451.987305 -9723.170898
1312.970093 7399.916016 -10459.611328
964.172058 7761.170898 -9409.814453
8948.166016 887.612976 -909.906982
5281.466797 5526.494141 -10035.054688
6981.264160 5669.909180 -837.539856
7407.051758 5115.856934 -176.371170
7438.382812 5042.517578 -1130.420044
4445.774902 7584.874512 4086.048584
6651.589355 4898.692383 -7551.674805
6829.789551 4331.938477 -8344.448242
6410.181641 4863.983398 -8519.556641
3916.496826 7886.428711 -3953.365234
3209.085693 8285.510742 -3055.168213
5405.552734 4787.589355 -11346.491211
5473.615723 4305.294434 -12040.726562
4825.753418 5109.541016 -11873.220703
777.353394 8610.742188 -5295.003418
918.882263 8699.879883 -4482.680664
6935.544922 5165.395508 -5280.709961
7321.856445 4792.796875 -4458.654297
7502.699219 4326.397949 -5184.891602
6644.700684 4265.960449 -9125.013672
7234.460938 3505.090332 -8552.349609
6913.351074 3465.135254 -9727.259766
4468.198242 2271.968750 -15782.134766
3702.133057 2951.860352 -16159.688477
4243.210449 3307.012451 -15234.314453
3946.328613 1909.834717 -16594.636719
7643.693359 2489.044434 -8552.791016
7606.669922 1841.714966 -9388.976562
7318.005859 2824.109375 -9323.403320
7154.917480 2561.788818 -10184.949219
5961.877441 6437.076660 4254.444336
5326.801270 6987.742676 4135.826660
2181.826660 7109.340820 -10707.833984
2622.991455 4376.312500 -15653.820312
2147.007568 4905.413574 -15273.509766
3046.537109 4643.860352 -14953.119141
685.940796 7284.305176 -11070.166016
599.978271 7579.095215 -10174.655273
5593.528809 3528.098877 -12891.333008
6060.251465 3511.127686 -11936.948242
3163.595703 6582.947754 -11107.940430
2253.435059 6733.216797 -11680.534180
2817.972900 6262.741699 -12284.844727
5469.844727 6801.175293 -4656.711426
6111.647461 6343.106934 -3923.657715
6231.807617 6061.726074 -4933.192871
6819.940430 5541.516113 -4126.860840
2595.179443 5307.901367 -14335.348633
1501.652222 2350.297363 -18065.154297
708.456055 2395.466064 -18253.869141
957.464111 3188.863281 -17652.771484
5333.750488 2316.559082 -14504.235352
4814.922852 2518.220703 -15148.732422
4960.050293 3087.630127 -14454.979492
1233.192017 8146.545410 -7655.329590
814.874878 8333.864258 -6976.327148
5100.209473 1743.749146 -15217.987305
4159.956543 5956.128418 -11220.224609
6492.949707 2731.189941 -11831.413086
7484.201660 4923.005859 -1880.794678
7208.845703 5242.225586 -2665.482910
6948.598145 5654.405762 -1873.612427
7745.848145 4420.700684 -2587.153076
4834.042969 7589.753418 -562.599487
5545.202637 7072.001953 -1118.599731
4910.326660 7508.762207 -1566.034790
5698.436035 2615.260254 -13634.131836
5724.075195 1639.025879 -14250.788086
4084.866943 7389.984375 -6588.618164
3114.956299 7806.812500 -6804.381348
3698.577148 7735.121094 -5792.215332
7703.578125 4346.101074 -3537.718262
7834.279785 3934.633545 -4318.173340
7278.132812 5040.564453 -3445.356201
2762.307617 8121.613281 -5761.613770
7345.773438 760.306458 -10865.711914
7072.260254 1257.090332 -11452.749023
7320.382324 1628.306641 -10511.284180
6946.110352 2204.539062 -11154.978516
5584.923340 7002.952148 -1900.291626
4753.033691 7360.358398 -4364.896973
4180.343262 7608.698730 -5028.162109
3284.478271 8225.077148 3405.575684
2556.383545 8513.768555 3002.654541
2506.206299 8437.016602 3992.823975
3471.716797 8212.605469 2622.257324
8450.366211 2430.820801 4073.852539
8517.830078 2528.239014 3057.000732
8181.769531 3327.804932 3672.447754
3398.482910 8005.998535 -4903.414551
4636.120117 7535.868652 -3506.598389
5344.926270 7045.181641 -3557.109131
3020.166748 2040.500610 -17373.054688
3788.546387 1001.523376 -17105.484375
8746.301758 1621.662109 -2921.261230
8539.688477 2457.070312 -3043.823975
8730.076172 1991.578613 -1960.399536
8719.063477 1616.029419 3276.288818
8769.575195 1756.309570 2166.084229
1620.377441 8718.935547 3268.229736
1808.914307 8750.105469 2318.595459
7416.705078 5035.828125 1735.675293
6867.700195 5794.286621 1164.306030
6861.374023 5745.153809 2065.905518
7435.210449 5064.494629 706.123718
805.844727 8028.559570 -8425.344727
8873.975586 958.447083 -2476.922607
7198.482422 4022.451904 -7622.876465
1634.440918 8243.291016 -6812.895508
2458.178955 8069.692383 -6634.236328
2197.105469 7990.530273 -7422.265137
4799.865723 7144.593750 -5567.788086
7493.825195 3752.175293 -6938.261230
2663.760986 8535.051758 2214.229248
8853.033203 1565.695679 980.439392
8632.181641 2475.694336 1334.450317
6445.913086 689.581360 -13183.408203
6079.015137 786.173035 -13915.348633
8201.262695 3438.992432 2951.755371
8441.995117 2955.594238 2152.947998
6298.906738 6405.401855 -1227.010864
6385.594238 6344.652832 -240.269699
3775.475342 4157.643555 -14849.483398
4381.851074 3978.857178 -14316.203125
1766.933472 6591.128418 -12392.762695
860.023438 6519.554688 -12975.851562
776.730347 6921.095703 -12039.089844
5032.322266 3693.321777 -13690.676758
6688.123047 5847.483398 -3072.524414
6238.027344 6401.718750 -2261.736572
5498.722168 7011.019531 -2713.552246
3011.855713 7031.151855 -10018.986328
5675.351074 6489.949707 -5468.854492
4474.126953 4521.403809 -13445.102539
3463.997070 7303.831055 -8362.176758
3611.907227 7460.234375 -7414.724121
4208.828125 6977.957031 -8074.672852
8279.077148 2891.472900 -4294.145508
7921.648438 3470.484375 -5274.935547
8159.804199 3511.096680 -3082.542969
4197.672363 7941.576660 -1256.266602
8205.404297 2714.409180 -5317.030762
2081.065674 2725.492920 -17567.585938
2152.936035 1617.360718 -18130.117188
8494.775391 1946.227051 -4763.655273
2369.804443 3790.651855 -16491.775391
3529.220459 4862.981445 -14148.437500
3063.702148 3623.048584 -16146.798828
3015.666504 5663.877441 -13326.496094
4879.754883 6370.235840 -8612.340820
7817.416504 4454.891113 -616.543396
2101.396484 5806.833496 -13824.996094
7830.836914 4387.260254 -1452.045288
815.376282 3898.893311 -17038.941406
8628.476562 1804.229980 -3855.742432
5963.874512 4206.839355 -11123.618164
8261.242188 3537.575928 1118.450806
7938.251465 4117.791504 2184.536621
7929.282227 2976.685059 -6439.489746
8316.694336 1992.465332 -5934.375977
3437.162354 3873.148438 -15541.992188
8310.141602 3461.713623 81.051346
7954.710449 4213.033203 269.664520
7627.880371 839.839478 -9933.812500
7858.875977 4350.978027 1249.421021
8939.375000 753.300476 1584.318237
8533.511719 2855.590332 551.012878
1460.527832 8881.044922 -407.508636
661.877258 8974.894531 -502.010284
769.274414 8968.382812 296.435791
2905.375244 7650.523438 -7917.127441
4352.023438 7086.156738 -7277.455566
4665.839844 5936.215820 -10346.987305
2250.852539 8716.331055 108.185120
1588.340088 8858.246094 481.529236
6232.987793 5864.003906 -5896.968262
6368.582520 4196.711426 -10093.652344
8868.006836 891.002136 2676.282959
794.584534 8883.985352 2573.511719
3333.341064 8325.186523 1666.520142
2174.777344 8715.487305 1255.763062
3121.684326 8438.200195 651.428162
4176.499023 7960.769531 1004.221802
3045.636719 911.946655 -17775.740234
1409.559204 7059.417480 -11408.894531
949.117432 8804.201172 -3421.831055
3534.069092 8045.844238 4124.022461
4635.961426 1137.668701 -16109.004883
8977.193359 665.065796 -222.078049
987.812927 5009.906250 -15647.738281
5438.540039 774.444031 -15052.485352
1826.410889 7828.665039 -8552.168945
992.382507 8457.176758 -6165.798828
2882.119141 7396.696777 -8960.668945
3416.293213 8262.591797 -2215.491943
3295.579346 8354.854492 -1299.248291
8188.740723 3721.598633 -782.957581
5784.229980 4825.377441 -10404.330078
5043.062500 5361.793945 -10938.670898
2676.546387 8536.481445 -2118.947998
5031.939941 4374.506836 -12766.040039
5145.457031 6467.843262 -7531.624512
7597.955566 3215.811768 -7601.780762
8895.344727 1149.539185 -1627.715332
4493.015625 4992.089355 -12651.880859
3844.154541 5689.249512 -12288.073242
8481.791016 2839.749023 -2150.718018
1095.800537 8923.649414 969.689758
983.988037 8911.925781 1705.167847
8532.868164 2803.348633 -1292.073242
6553.274414 3319.472900 -10982.767578
1583.017090 6238.189453 -13285.118164
3681.678223 8214.209961 261.855682
4386.812988 7860.901855 156.337616
3869.230225 8124.403809 -544.310547
2367.660889 6093.131836 -13063.462891
2277.574463 688.519226 -18324.349609
5745.723633 6928.770508 -314.412598
5117.697754 7399.954102 644.445862
8189.587402 3631.218750 -1873.874634
6007.381348 6515.983398 3334.874512
5143.315918 7223.399414 3277.938965
8739.788086 643.486694 4348.656738
634.728455 8737.808594 4372.053223
8964.025391 778.425049 610.590881
1968.180054 8554.618164 -4214.845703
2103.947021 8627.097656 -3123.309326
2940.021729 8293.948242 -4010.086914
949.663269 5990.632812 -14040.103516
7742.814453 4307.773438 3360.543213
7134.759766 5228.437500 3532.903564
7436.044922 4680.935547 4134.448242
8530.135742 2868.182617 -489.106354
703.432434 8817.106445 3536.167236
2759.679199 3060.896973 -16892.078125
8806.008789 779.761841 3587.667969
7334.543945 5067.470703 2643.329346
6067.272949 5759.813477 -7017.728516
5471.664062 6481.142578 -6366.393555
1423.095337 8668.674805 4153.150879
8631.263672 1538.652222 4313.588867
7804.712402 4010.788086 4243.950684
7873.758789 2538.723877 -7492.348633
7051.899902 5200.868164 4358.711426
8150.957031 1890.900269 -7009.359863
4288.482422 7846.483887 2198.416748
6110.615234 6603.987793 637.091492
6891.723145 5790.914062 239.364090
6255.875977 6425.636719 1659.971558
8152.675781 3207.535889 4370.912109
5659.818359 6968.074219 1424.880371
4206.087891 7818.796875 3143.667969
5678.607422 6898.187500 2323.343018
4947.198730 7418.188965 2618.344482
7981.167480 1886.156006 -7836.573242
5984.406738 6559.103516 -3136.433594
3837.310059 5232.576660 -13169.972656
7877.992676 1610.127319 -8543.960938
8817.874023 867.725159 -3360.702637
8781.237305 1942.759766 -841.422913
8893.602539 1395.420776 10.470360
1603.670776 5460.124512 -14722.275391
775.079163 5528.218262 -14906.109375
4814.314453 6927.866699 -6630.755371
1942.406860 8299.825195 -6110.876465
1756.321167 8470.423828 -5259.726562
6717.563477 5819.041016 3026.626465
6571.436035 5847.389160 4041.936768
6323.229980 6298.068359 2492.315674
8692.429688 949.270386 -4518.713867
8728.998047 2198.279785 263.195557
3000.530518 8486.325195 -316.538910
2638.440186 8294.487305 -4851.279297
8540.016602 998.872131 -5629.176758
8396.310547 953.993469 -6551.285156
8159.429688 893.797607 -7802.806641
7871.050781 878.656006 -9033.017578
3527.585693 6163.638184 -11676.697266
5003.632812 7440.681152 1692.807861
3360.478516 2430.166016 -16863.890625
-6408.023926 3030.927002 -11711.933594
-6205.915527 3889.632812 -11047.807617
-5823.759277 3811.404541 -12050.537109
-5456.106445 4729.478516 -11347.266602
-7836.745605 3683.238037 -5196.646484
-7321.799316 4485.799805 -5707.162598
-7718.706543 3629.746338 -6076.724609
-734.311646 8907.049805 -2281.577148
-1024.973267 8810.985352 -3241.844727
-1682.826782 8779.609375 -2243.484863
-5020.275879 1964.562012 -15216.540039
-5636.974121 1521.105957 -14462.114258
-5331.773438 2509.817383 -14363.563477
-5153.746582 937.096741 -15452.330078
-8447.106445 723.705444 -6389.776855
-8602.788086 793.669739 -5341.606934
-8382.231445 1593.173584 -6059.651367
-4470.899902 5420.261719 -11878.305664
-5082.244629 4545.835938 -12405.550781
-4080.753906 4074.134277 -14590.616211
-4835.894043 3617.959961 -14089.831055
-4195.075195 4573.723633 -13763.249023
-4819.864258 4345.231445 -13168.734375
-1688.026489 8829.818359 -1008.355591
-805.221863 8937.956055 -1504.203003
-3267.604736 996.174744 -17578.931641
-2478.899414 889.561157 -18168.740234
-4146.130859 7988.170410 433.177307
-4802.972168 7614.040527 -74.241928
-4830.857422 7583.086426 950.936829
-2104.057861 8627.491211 -3118.131836
-769.656555 8963.596680 -683.796936
-2526.919434 8615.261719 -1392.532715
-3270.333252 8377.418945 -862.914795
-2364.281738 8684.957031 -334.348358
-3009.535889 7011.758789 -10082.429688
-3102.927490 7272.515625 -9084.116211
-2091.423584 7509.860840 -9502.457031
-857.348328 8797.106445 3606.043213
-930.519226 8868.342773 2610.622070
-1750.526245 8683.958984 3382.086670
-3293.687256 8378.215820 48.185993
-3861.234131 6800.161133 -9413.145508
-4870.375000 6773.926270 -7137.502441
-4557.488770 6757.550781 -8066.647461
-5343.117188 6247.951660 -7742.452148
-8920.050781 1033.635742 1347.598877
-8877.662109 878.407288 2549.232910
-7582.184082 4455.652832 4060.284180
-4029.113770 7539.843750 -5954.728516
-3930.728516 7776.535645 -4774.810547
-2998.560303 8075.720703 -5517.682617
-5162.557129 6151.583496 -8585.906250
-1487.063232 8256.609375 -6891.003418
-2397.837891 7968.719238 -7247.899902
-2236.219238 8217.094727 -6161.233398
-5717.155762 707.698364 -14600.444336
-5940.557129 6365.255371 -4829.739746
-6249.261230 5908.740234 -5614.573730
-6587.169922 5665.117676 -4976.157227
-5671.684570 6414.667969 -5866.945312
-5486.390625 6363.204102 -6823.479004
-5997.782715 5715.111328 -7434.244629
-3867.250000 7952.014160 -3565.038818
-3071.896973 8188.856934 -4501.679688
-5684.744629 6941.893066 -1546.888428
-5732.187012 6837.424316 -2528.305176
-6460.357422 6213.228027 -1769.545776
-6511.692871 6065.686523 -2869.637451
-6134.490723 5825.964844 -6494.705566
-7242.458496 1122.185059 -11033.712891
-7624.192383 809.754700 -9957.523438
-7406.767578 1732.212036 -10161.929688
-7678.867676 4409.730957 -3424.456543
-7502.699219 4853.348145 -2309.969482
-7094.901367 5331.874023 -3184.677246
-3436.369141 6528.455566 -10888.048828
-3416.356201 6180.328125 -11784.227539
-4241.147461 6012.995117 -10946.380859
-2638.454834 6811.556641 -11104.889648
-797.750427 6134.375000 -13803.749023
-1047.041870 6509.759766 -12936.479492
-5560.374512 7074.948730 -561.270935
-6148.101562 6564.606934 -817.897034
-6131.328613 6591.381836 131.653625
-4550.468262 1413.923462 -16120.128906
-4578.245117 631.175964 -16305.204102
-6678.301270 6029.979980 -608.116760
-935.418030 8944.602539 850.671387
-7193.473633 3170.761719 -9258.443359
-6637.549316 3785.191895 -10046.432617
-7096.889160 2771.010498 -10121.615234
-928.293152 4478.005859 -16365.800781
-1230.147705 5054.681152 -15506.455078
-8810.445312 1270.355469 -2836.035400
-8799.958984 861.136047 -3570.853271
-3750.602051 8088.594238 -2628.464600
-4671.125488 7573.040039 -2888.478516
-8909.142578 1213.766602 -937.572632
-8926.829102 741.262695 -1894.380981
-6997.807617 5552.022949 -2358.836914
-4648.824219 7467.496582 -4042.300781
-718.818054 8041.086914 -8407.183594
-557.378296 7861.833008 -9181.311523
-1338.262695 7840.269531 -8900.053711
-2590.778320 8406.223633 4041.390869
-2660.308105 8471.303711 3132.695312
-3428.516113 8166.073730 3405.708740
-3394.759521 8264.478516 2328.681396
-8239.981445 3277.573730 3272.103516
-8523.432617 2567.201660 2834.709473
-8430.113281 2534.900879 3977.055176
-8263.090820 3388.220215 2392.176270
-1280.974854 8910.746094 -70.114075
-6942.115234 860.309814 -11959.608398
-6613.239746 907.999756 -12748.114258
-2168.193848 8521.476562 -4074.372314
-1543.551392 8688.400391 -3759.224854
-4699.056152 7292.442871 -5075.211914
-5600.047363 6744.558105 4322.135742
-6281.232422 6179.127930 3896.165283
-8714.331055 1689.243408 3166.026611
-8748.683594 1866.351440 2132.227783
-705.481506 8413.024414 -6595.823730
-1171.762573 8492.686523 -5797.145996
-6807.143555 5853.854980 1397.701294
-6299.337402 6411.881836 1054.241699
-6877.122070 5805.669922 436.560486
-4441.230957 2172.570801 -15878.094727
-4663.081543 2792.128418 -15146.468750
-4009.807617 2730.290771 -16005.445312
-5901.614258 6571.102051 -3676.811035
-5321.337891 7073.027832 -3467.364258
-1809.453735 8814.120117 599.040894
-1582.823853 8827.041992 1663.724976
-2824.469238 1974.010986 -17552.972656
-5306.366211 6971.738281 -4366.704590
-5275.299805 6860.273926 -5234.514648
-4174.592285 3450.869141 -15176.523438
-8560.647461 2628.306885 1946.643799
-2470.947510 8604.535156 2002.005371
-1812.525879 8732.893555 2580.310547
-8679.507812 2322.972656 1181.380615
-8637.953125 2531.489014 303.830719
-8845.324219 1657.261353 504.403107
-2747.130371 8502.484375 -2316.245850
-6409.248535 1775.824951 -12805.183594
-6226.129883 940.001160 -13579.044922
-4569.773926 6489.283691 -8966.654297
-5451.074707 7162.469727 354.453308
-5707.549805 6942.189941 1103.278076
-4512.679688 6208.411621 -9929.606445
-5105.941895 5494.391602 -10507.130859
-5494.078613 5583.283691 -9364.125977
-716.381531 8937.670898 1699.270020
-3863.164307 6515.932129 -10266.452148
-6673.356445 3212.089111 -10801.416016
-7316.855469 4211.484863 -6597.073730
-3236.500732 8382.833008 1149.368042
-6948.845215 2326.629883 -11036.305664
-1121.234131 7647.598145 -9740.681641
-886.199219 7435.801270 -10545.741211
-1832.568726 7306.822754 -10402.963867
-7847.184570 4255.101562 2460.573242
-8022.299805 4020.124023 1528.795532
-3810.874512 7144.936523 -8301.320312
-7084.958496 5178.673340 -4235.893555
-7492.853516 4472.000488 -4672.725586
-8809.361328 1850.759766 -242.799271
-2769.052979 7674.958008 -8028.611328
-2209.386719 7683.317871 -8734.864258
-1686.424561 7995.591309 -7972.693848
-3727.711426 5654.139160 -12517.916992
-2849.268799 5971.831543 -12883.372070
-3542.568359 5329.030273 -13364.112305
-1990.609863 6371.925781 -12747.317383
-1848.724731 6076.708496 -13464.426758
-7864.660645 2447.281982 -7668.376465
-7959.041504 1503.864502 -8291.904297
-8209.010742 1403.547241 -7214.729492
-2375.791992 6565.166992 -11994.435547
-2668.409424 5553.288574 -13853.281250
-7650.053223 2383.103760 -8661.188477
-7726.002441 1538.433960 -9196.146484
-7196.307129 5376.281738 -1252.455078
-7810.958984 4429.820801 -1349.759155
-7996.000000 3991.789551 -2285.821777
-3992.705322 848.359924 -16934.679688
-3821.019775 1817.490356 -16770.533203
-4254.657227 7896.581543 1614.646606
-4452.946289 7704.909180 2869.901123
-5402.586426 3720.927246 -13012.016602
-6479.846680 5953.958496 -4007.458740
-1772.831177 2344.547119 -17958.695312
-865.921875 2521.682373 -18147.587891
-937.499756 1627.352417 -18581.939453
-7889.153320 732.780273 -9020.624023
-747.447815 8240.454102 -7485.636719
-1577.719360 7043.738770 -11353.861328
-5160.631836 7320.261719 1917.043091
-5363.587891 7110.713379 2762.375000
-5889.500000 6628.868164 3280.043457
-6160.448730 6487.992676 2108.664551
-5007.521484 7273.255371 3696.696533
-744.630432 8733.150391 4336.130859
-4367.596680 5016.304688 -12803.932617
-3365.584717 4798.289062 -14421.787109
-6098.440430 2782.439941 -12682.684570
-6722.693848 1847.923096 -12019.732422
-5972.429688 2069.620605 -13528.935547
-5791.622559 5638.772949 -8363.925781
-2994.252197 8338.004883 -3373.913574
